ply
format ascii 1.0
comment PCL generated
element vertex 1487
property float x
property float y
property float z
element face 0
element camera 0
property float view_px
property float view_py
property float view_pz
property float x_axisx
property float x_axisy
property float x_axisz
property float y_axisx
property float y_axisy
property float y_axisz
property float z_axisx
property float z_axisy
property float z_axisz
property float focal
property float scalex
property float scaley
property float centerx
property float centery
property int viewportx
property int viewporty
property float k1
property float k2
end_header
0.85834062 -0.0010155435 1.6940001
0.86090791 -0.017102312 1.7070001
0.86695445 -0.013113225 1.7110001
0.86232978 -0.0010155435 1.6940001
0.86631888 -0.0010155435 1.6940001
0.86290085 -0.0090415878 1.7030001
0.87092149 -0.0090415878 1.7030001
0.86894745 -0.0090628248 1.7070001
0.8674643 -0.021282915 1.72
0.87151468 -0.017232556 1.72
0.87654239 -0.025598386 1.738
0.87621242 -0.0010131454 1.6900001
0.88295251 -0.005031263 1.7030001
0.88487953 -0.0010185409 1.6990001
0.89288139 -0.0010185409 1.6990001
0.89112943 -0.0050548981 1.7110001
0.89097315 -0.0010209389 1.7030001
0.87352884 -0.013151545 1.7160001
0.87760127 -0.017272633 1.7240001
0.87961537 -0.0131822 1.72
0.88063514 -0.021505643 1.738
0.89236116 -0.013251178 1.7290001
0.89442557 -0.017362803 1.733
0.8896926 -0.0091106072 1.7160001
0.9011054 -0.0010233369 1.7070001
0.90724611 -0.0010257348 1.7110001
0.90109891 -0.013320154 1.738
0.89986718 -0.0050814869 1.72
0.91007948 -0.0050933044 1.7240001
0.90050423 -0.0091796275 1.7290001
0.90928441 -0.00922741 1.738
0.91606861 -0.0010311302 1.72
0.92011899 -0.0010311302 1.72
0.91679049 -0.0051080766 1.7290001
0.9107495 -0.0092008635 1.733
0.85735786 -0.051713176 1.7920001
0.86157775 -0.051713176 1.7920001
0.86579764 -0.051713176 1.7920001
0.87001753 -0.051713176 1.7920001
0.83774197 -0.046406649 1.751
0.83946139 -0.046274133 1.7460001
0.84574252 -0.046168122 1.7420001
0.84357291 -0.046274133 1.7460001
0.83552295 -0.04651266 1.7550001
0.84984469 -0.046168122 1.7420001
0.85835874 -0.046406649 1.751
0.86413085 -0.042162545 1.7460001
0.86937803 -0.046777692 1.7650001
0.87423742 -0.051713176 1.7920001
0.88090843 -0.051857464 1.7970001
0.89006573 -0.05214604 1.807
0.87213063 -0.057462502 1.8410001
0.87646598 -0.057462502 1.8410001
0.88080126 -0.057462502 1.8410001
0.88273257 -0.057306439 1.8360001
0.88705605 -0.057306439 1.8360001
0.89137959 -0.057306439 1.8360001
0.89570314 -0.057306439 1.8360001
0.90124989 -0.052550051 1.8210001
0.90002662 -0.057306439 1.8360001
0.90681297 -0.057462502 1.8410001
0.91051084 -0.052838631 1.8310001
0.87934887 -0.038356069 1.7600001
0.88098347 -0.034114327 1.7550001
0.88511622 -0.02998155 1.7550001
0.89178246 -0.025922418 1.7600001
0.87967974 -0.042717952 1.7690001
0.88244289 -0.047254745 1.7830001
0.8970235 -0.021604633 1.7460001
0.90050846 -0.026054975 1.7690001
0.90343642 -0.030459888 1.7830001
0.90175945 -0.034755792 1.7880001
0.91018039 -0.030545305 1.7880001
0.91558623 -0.026128618 1.774
0.91603261 -0.030459888 1.7830001
0.92281187 -0.030545305 1.7880001
0.90524668 -0.017493049 1.7460001
0.90935826 -0.013381466 1.7460001
0.90578014 -0.021715999 1.7550001
0.91196233 -0.017543143 1.751
0.91608572 -0.013419786 1.751
0.92079437 -0.017633315 1.7600001
0.91958147 -0.0092486469 1.7420001
0.91509759 -0.021839736 1.7650001
0.89533699 -0.04327336 1.7920001
0.89608985 -0.047758296 1.802
0.89955688 -0.039053451 1.7920001
0.91643649 -0.030613638 1.7920001
0.91762388 -0.035202876 1.8110001
0.90982628 -0.048261855 1.8210001
0.91411442 -0.043973655 1.8210001
0.91588092 -0.039576489 1.8160001
0.92631859 -0.0010335282 1.7240001
0.92821968 -0.0010311302 1.72
0.93227005 -0.0010311302 1.72
0.92565536 -0.0051346654 1.738
0.93632042 -0.0010311302 1.72
0.94255769 -0.0010335282 1.7240001
0.94847149 -0.0010311302 1.72
0.94661748 -0.0010335282 1.7240001
0.93793362 -0.0051346654 1.738
0.94611913 -0.0051346654 1.738
0.95513839 -0.0010209389 1.7030001
0.95336211 -0.0010233369 1.7070001
0.95030671 -0.0010287323 1.7160001
0.95434767 -0.0010287323 1.7160001
0.96157753 -0.0051080766 1.7290001
0.9556402 -0.0051198937 1.733
0.95972115 -0.0051198937 1.733
0.96285659 -0.0050933044 1.7240001
0.92443001 -0.026261177 1.7830001
0.93123287 -0.02633482 1.7880001
0.93544334 -0.02633482 1.7880001
0.93965381 -0.02633482 1.7880001
0.93402773 -0.0051583005 1.7460001
0.9305768 -0.0093176672 1.7550001
0.93813932 -0.0051583005 1.7460001
0.9441945 -0.005146483 1.7420001
0.93737257 -0.0093442127 1.7600001
0.92394131 -0.0219511 1.774
0.92811882 -0.0219511 1.774
0.93229634 -0.0219511 1.774
0.93172288 -0.013527084 1.7650001
0.93647385 -0.017773578 1.774
0.94065142 -0.013596061 1.774
0.94386435 -0.022124333 1.7880001
0.94807482 -0.017913844 1.7880001
0.94695932 -0.013626717 1.7780001
0.94834822 -0.0093707591 1.7650001
0.95239878 -0.005146483 1.7420001
0.95650095 -0.005146483 1.7420001
0.94980621 -0.0093442127 1.7600001
0.97290963 -0.0092486469 1.7420001
0.97190458 -0.0093176672 1.7550001
0.97052902 -0.0093442127 1.7600001
0.96070629 -0.013703358 1.7880001
0.94900644 -0.0094185416 1.774
0.95666087 -0.0093707591 1.7650001
0.96081722 -0.0093707591 1.7650001
0.96221846 -0.013665037 1.7830001
0.9691273 -0.013703358 1.7880001
0.97333777 -0.013703358 1.7880001
0.9671604 -0.0093919951 1.7690001
0.97132617 -0.0093919951 1.7690001
0.92909622 -0.030613638 1.7920001
0.93592024 -0.030699056 1.7970001
0.94015193 -0.030699056 1.7970001
0.94438362 -0.030699056 1.7970001
0.93282473 -0.040121321 1.8410001
0.92697906 -0.035397258 1.8210001
0.93726307 -0.035300069 1.8160001
0.94413185 -0.035397258 1.8210001
0.94842005 -0.035397258 1.8210001
0.95125473 -0.026541021 1.802
0.95600575 -0.030938227 1.8110001
0.95270824 -0.035397258 1.8210001
0.95699644 -0.035397258 1.8210001
0.96317178 -0.040121321 1.8410001
0.96292162 -0.026747223 1.8160001
0.96822405 -0.031194478 1.8260001
0.96656352 -0.035591643 1.8310001
0.95549822 -0.022297565 1.802
0.9570787 -0.018004013 1.7970001
0.95863557 -0.013734014 1.7920001
0.97306436 -0.01814428 1.8110001
0.96986103 -0.022532668 1.8210001
0.97147447 -0.018194374 1.8160001
0.98618287 -0.013419786 1.751
0.97603738 -0.0093176672 1.7550001
0.98660415 -0.013596061 1.774
0.97754824 -0.013703358 1.7880001
0.98321205 -0.013665037 1.7830001
0.98464179 -0.013626717 1.7780001
0.98175877 -0.013703358 1.7880001
0.9899115 -0.013527084 1.7650001
0.98798913 -0.01355774 1.7690001
0.97785002 -0.027041795 1.8360001
0.97732902 -0.01814428 1.8110001
0.98159367 -0.01814428 1.8110001
0.98484832 -0.022780143 1.8410001
0.99130207 -0.01824447 1.8210001
0.99832386 -0.018294564 1.8260001
1.0112238 -0.018294564 1.8260001
1.0053693 -0.018344657 1.8310001
1.009681 -0.018344657 1.8310001
1.0155238 -0.018294564 1.8260001
0.88397384 -0.062636986 1.8660001
0.88598758 -0.062469147 1.8610001
0.88994443 -0.062133472 1.8510001
0.89623457 -0.061965633 1.8460001
0.89430326 -0.062133472 1.8510001
0.88797778 -0.062301308 1.8560001
0.89754653 -0.067390367 1.876
0.90594459 -0.067031145 1.8660001
0.91033876 -0.067031145 1.8660001
0.90302092 -0.062133472 1.8510001
0.90492874 -0.061965633 1.8460001
0.91420144 -0.066671923 1.8560001
0.91228187 -0.066851534 1.8610001
0.92104667 -0.066851534 1.8610001
0.91362286 -0.057618566 1.8460001
0.91173863 -0.062133472 1.8510001
0.91857207 -0.062301308 1.8560001
0.9229427 -0.057930693 1.8560001
0.89956027 -0.067210756 1.8710001
0.90396613 -0.067210756 1.8710001
0.91411221 -0.072420523 1.8920001
0.91814446 -0.072037749 1.8820001
0.92257631 -0.072037749 1.8820001
0.91856766 -0.072420523 1.8920001
0.90759367 -0.072611913 1.8970001
0.91206086 -0.072611913 1.8970001
0.99868059 -0.10140635 1.9350001
1.0109189 -0.1017208 1.9410001
1.0089405 -0.10198282 1.9460001
1.0212446 -0.10229726 1.9520001
1.0131319 -0.10749632 1.9630001
1.022377 -0.10749632 1.9630001
1.0208652 -0.10782489 1.9690001
1.0048636 -0.1034502 1.9740001
1.0062954 -0.10407908 1.9860001
1.0141606 -0.1080987 1.9740001
1.015649 -0.10875583 1.9860001
1.0250025 -0.11343258 1.9860001
1.0165718 -0.10935821 1.9970001
0.92542905 -0.062469147 1.8610001
0.92481518 -0.053415786 1.8510001
0.93230963 -0.058242816 1.8660001
0.92405277 -0.071808085 1.876
0.9304018 -0.067210756 1.8710001
0.93480778 -0.062804818 1.8710001
0.93144 -0.072037749 1.8820001
0.93587184 -0.072037749 1.8820001
0.93730593 -0.067390367 1.876
0.94529998 -0.072420523 1.8920001
0.94473553 -0.063174061 1.8820001
0.94724542 -0.067785516 1.8870001
0.93921363 -0.053992942 1.8710001
0.94473553 -0.058742221 1.8820001
0.95055902 -0.049719516 1.876
0.94916737 -0.054310378 1.8820001
0.95866615 -0.054598954 1.8920001
0.9605763 -0.050011046 1.8870001
0.9624629 -0.049878534 1.8820001
0.97132659 -0.049878534 1.8820001
0.93439662 -0.077079073 1.8970001
0.93287075 -0.07732287 1.9030001
0.93082875 -0.077526025 1.9080001
0.93886381 -0.077079073 1.8970001
0.94631463 -0.07732287 1.9030001
0.92957294 -0.078176141 1.9240001
0.92792696 -0.078419931 1.9300001
0.93167621 -0.077972986 1.9190001
0.92577428 -0.078623094 1.9350001
0.95079595 -0.07732287 1.9030001
0.9577871 -0.077526025 1.9080001
0.96480191 -0.077729188 1.9130001
0.96930677 -0.077729188 1.9130001
0.9522267 -0.082706891 1.9240001
0.95065129 -0.082964815 1.9300001
0.95675743 -0.082706891 1.9240001
0.96128821 -0.082706891 1.9240001
0.96978188 -0.088008448 1.9410001
0.9743526 -0.088008448 1.9410001
0.96330899 -0.082491957 1.9190001
0.97034967 -0.082706891 1.9240001
0.9723469 -0.082491957 1.9190001
0.95226526 -0.072611913 1.8970001
0.95975852 -0.072841577 1.9030001
0.95673245 -0.068144739 1.8970001
0.95673245 -0.063677579 1.8970001
0.95673245 -0.059210412 1.8970001
0.96677327 -0.068539888 1.9080001
0.96677327 -0.064046822 1.9080001
0.96930677 -0.073224351 1.9130001
0.97381157 -0.068719499 1.9130001
0.97013396 -0.054743245 1.8970001
0.96872109 -0.054916393 1.9030001
0.96677327 -0.05955375 1.9080001
0.92666405 -0.048924427 1.8460001
0.93101114 -0.044577356 1.8460001
0.94225049 -0.040339254 1.8510001
0.94405234 -0.040230285 1.8460001
0.94839942 -0.040230285 1.8460001
0.93857622 -0.049321972 1.8610001
0.94295859 -0.044939578 1.8610001
0.95274645 -0.040230285 1.8460001
0.96144062 -0.040230285 1.8460001
0.95968586 -0.040339254 1.8510001
0.95428044 -0.045060314 1.8660001
0.95867455 -0.045060314 1.8660001
0.96306872 -0.045060314 1.8660001
0.9674629 -0.045060314 1.8660001
0.97101945 -0.044818837 1.8560001
0.96925294 -0.044939578 1.8610001
0.9524315 -0.045181055 1.8710001
0.97706532 -0.049719516 1.876
0.97835076 -0.050011046 1.8870001
0.99348581 -0.054310378 1.8820001
0.98723799 -0.054454666 1.8870001
0.99168164 -0.054454666 1.8870001
1.0050125 -0.050011046 1.8870001
0.98282129 -0.08223404 1.9130001
0.97892338 -0.088008448 1.9410001
0.97686589 -0.082491957 1.9190001
0.97941113 -0.087237641 1.9240001
0.97792053 -0.087509684 1.9300001
0.97686589 -0.077972986 1.9190001
0.98394191 -0.087237641 1.9240001
0.98138487 -0.082491957 1.9190001
0.98590386 -0.087010927 1.9190001
0.98138487 -0.077972986 1.9190001
0.98590386 -0.077972986 1.9190001
0.99300343 -0.091768391 1.9240001
0.99155515 -0.092054568 1.9300001
0.99610007 -0.096599437 1.9300001
0.99042284 -0.087010927 1.9190001
0.99042284 -0.082491957 1.9190001
0.99300343 -0.078176141 1.9240001
0.99494183 -0.082491957 1.9190001
0.99946082 -0.087010927 1.9190001
0.99753416 -0.087237641 1.9240001
0.99946082 -0.082491957 1.9190001
0.99753416 -0.078176141 1.9240001
0.97831643 -0.064214662 1.9130001
0.97460109 -0.054743245 1.8970001
0.98216498 -0.054916393 1.9030001
0.98800266 -0.054743245 1.8970001
0.98923862 -0.055060681 1.9080001
0.97686589 -0.073454015 1.9190001
0.97686589 -0.064416066 1.9190001
0.98394191 -0.073645398 1.9240001
0.98138487 -0.068935037 1.9190001
0.98590386 -0.068935037 1.9190001
0.98590386 -0.064416066 1.9190001
0.97686589 -0.059897091 1.9190001
0.98138487 -0.059897091 1.9190001
0.98847264 -0.073645398 1.9240001
0.99300343 -0.069114648 1.9240001
0.99300343 -0.064583905 1.9240001
0.99494183 -0.068935037 1.9190001
0.99610007 -0.073875062 1.9300001
0.99946082 -0.064416066 1.9190001
0.99753416 -0.064583905 1.9240001
0.98847264 -0.060053155 1.9240001
0.99300343 -0.060053155 1.9240001
0.99946082 -0.059897091 1.9190001
0.99753416 -0.060053155 1.9240001
1.0006449 -0.092054568 1.9300001
1.0032372 -0.096849695 1.9350001
1.0077939 -0.096849695 1.9350001
1.0077939 -0.092293046 1.9350001
1.0020649 -0.078176141 1.9240001
1.0097346 -0.082964815 1.9300001
1.0097346 -0.078419931 1.9300001
1.0123506 -0.087736398 1.9350001
1.0154897 -0.092579231 1.9410001
1.0200604 -0.088008448 1.9410001
1.0142796 -0.078419931 1.9300001
1.0169072 -0.08317975 1.9350001
1.0246313 -0.083437674 1.9410001
1.0214639 -0.078623094 1.9350001
1.0027179 -0.064046822 1.9080001
1.0008407 -0.064214662 1.9130001
1.0098504 -0.064214662 1.9130001
1.0045714 -0.059397686 1.9030001
1.0027179 -0.05955375 1.9080001
1.0008407 -0.059709813 1.9130001
1.0135341 -0.054916393 1.9030001
1.0180154 -0.050435096 1.9030001
1.0020649 -0.069114648 1.9240001
1.0039798 -0.068935037 1.9190001
1.0006449 -0.073875062 1.9300001
1.0051898 -0.073875062 1.9300001
1.0084988 -0.068935037 1.9190001
1.0097346 -0.073875062 1.9300001
1.0130178 -0.068935037 1.9190001
1.0142796 -0.073875062 1.9300001
1.0188245 -0.073875062 1.9300001
1.0233693 -0.073875062 1.9300001
1.0247186 -0.064583905 1.9240001
1.0247186 -0.060053155 1.9240001
0.97712129 -0.040339254 1.8510001
0.98240018 -0.044939578 1.8610001
0.98503959 -0.049454484 1.8660001
0.98317599 -0.031536147 1.8460001
0.9928726 -0.027336368 1.8560001
0.99382794 -0.036271986 1.8660001
0.99992973 -0.02741001 1.8610001
0.97886717 -0.049587 1.8710001
0.99208498 -0.049587 1.8710001
0.99208498 -0.045181055 1.8710001
0.99187011 -0.022842012 1.8460001
0.99621719 -0.022842012 1.8460001
1.0043122 -0.02741001 1.8610001
1.0023495 -0.045446686 1.8820001
1.0053028 -0.031963237 1.8710001
1.0124071 -0.032048654 1.876
1.0141147 -0.027557297 1.8710001
1.0200769 -0.032151155 1.8820001
1.0245087 -0.027719313 1.8820001
1.0059844 -0.02296575 1.8560001
1.0185206 -0.023151357 1.8710001
0.94841558 -0.084383383 1.9630001
0.94730395 -0.085114166 1.9800001
0.94549775 -0.085372083 1.9860001
0.95012522 -0.084125467 1.9570001
0.97068113 -0.088507213 1.9520001
0.96690595 -0.089005962 1.9630001
0.96855909 -0.088733919 1.9570001
0.94908178 -0.084856242 1.9740001
0.96767569 -0.089504726 1.9740001
0.96888143 -0.090048827 1.9860001
0.96954525 -0.090547591 1.9970001
0.99061024 -0.092817716 1.9460001
0.98906785 -0.093103893 1.9520001
0.99001884 -0.093628556 1.9630001
0.98840821 -0.09391474 1.9690001
0.99768162 -0.098551452 1.9690001
0.98626965 -0.094153218 1.9740001
0.98588127 -0.095011763 1.9920001
0.98758847 -0.094725579 1.9860001
0.99995387 -0.099702634 1.9920001
1.0181055 -0.097400263 1.9460001
1.0226882 -0.092817716 1.9460001
1.0016186 -0.099402323 1.9860001
1.1599532 -0.36036581 1.641
1.1638176 -0.35650146 1.641
1.2106256 -0.37485951 1.7070001
1.2089529 -0.36910179 1.6990001
1.1965221 -0.30682364 1.6650001
1.2087388 -0.30599549 1.682
1.2184676 -0.31939003 1.6900001
1.2278404 -0.31783655 1.7030001
1.1725456 -0.29780895 1.6370001
1.179067 -0.27413341 1.6570001
1.1733745 -0.24174459 1.649
1.179067 -0.24681941 1.6570001
1.1676819 -0.23670746 1.641
1.1772577 -0.21844563 1.649
1.174402 -0.21404201 1.6450001
1.174402 -0.21016827 1.6450001
1.1772577 -0.20679614 1.649
1.1868711 -0.2975454 1.6570001
1.1886804 -0.28721946 1.6650001
1.1990477 -0.29665604 1.674
1.1979614 -0.28551057 1.6780001
1.1876059 -0.27218843 1.669
1.19401 -0.26970473 1.6780001
1.1968561 -0.2624259 1.682
1.19401 -0.25785041 1.6780001
1.1997025 -0.26702029 1.6860001
1.2173625 -0.30418947 1.6940001
1.2133733 -0.29621121 1.6940001
1.2093842 -0.28424382 1.6940001
1.2158095 -0.28174365 1.7030001
1.2255501 -0.29515466 1.7110001
1.2215209 -0.27903798 1.7110001
1.2215209 -0.25889218 1.7110001
1.2279462 -0.27645537 1.72
1.2279462 -0.26430434 1.72
1.1876059 -0.25253713 1.669
1.1886804 -0.23232768 1.6650001
1.2008171 -0.24262154 1.682
1.1951057 -0.23752554 1.674
1.1801134 -0.22676067 1.6530001
1.1801134 -0.22286811 1.6530001
1.1801134 -0.20340519 1.6530001
1.204778 -0.2228172 1.682
1.204778 -0.21885632 1.682
1.204778 -0.21489544 1.682
1.204778 -0.21093456 1.682
1.2076432 -0.22731739 1.6860001
1.2093842 -0.24834165 1.6940001
1.2129538 -0.25307554 1.6990001
1.2105082 -0.23183638 1.6900001
1.2169547 -0.23707192 1.6990001
1.222685 -0.24220796 1.7070001
1.2105082 -0.20795812 1.6900001
1.2133733 -0.20446122 1.6940001
1.2295792 -0.22665888 1.7110001
1.2295792 -0.22262971 1.7110001
1.0893494 -0.13855961 1.669
1.174402 -0.15593587 1.6450001
1.174402 -0.15206212 1.6450001
1.174402 -0.14818838 1.6450001
1.1772577 -0.14466555 1.649
1.1772577 -0.14078239 1.649
1.1772577 -0.13689922 1.649
1.1801134 -0.19951262 1.6530001
1.1801134 -0.19562003 1.6530001
1.1829691 -0.19219139 1.6570001
1.1858248 -0.18874393 1.6610001
1.1858248 -0.18483253 1.6610001
1.1886804 -0.18135679 1.6650001
1.1829691 -0.16877939 1.6570001
1.1858248 -0.17700967 1.6610001
1.1801134 -0.16447939 1.6530001
1.1801134 -0.1605868 1.6530001
1.1886804 -0.1735151 1.6650001
1.2133733 -0.20047207 1.6940001
1.2169547 -0.19706288 1.6990001
1.222685 -0.19397104 1.7070001
1.2255501 -0.19039641 1.7110001
1.2291313 -0.18691185 1.7160001
1.222685 -0.16181308 1.7070001
1.2198198 -0.15341327 1.7030001
1.222685 -0.15779334 1.7070001
1.2291313 -0.16670717 1.7160001
1.1801134 -0.13333873 1.6530001
1.1829691 -0.12975939 1.6570001
1.1829691 -0.12585738 1.6570001
1.1858248 -0.12224978 1.6610001
1.2105082 -0.14030303 1.6900001
1.2169547 -0.14505112 1.6990001
1.2105082 -0.13632333 1.6900001
1.2105082 -0.12836389 1.6900001
1.2133733 -0.13265686 1.6940001
1.2198198 -0.14940293 1.7030001
1.2105082 -0.12438418 1.6900001
1.2295792 -0.12592979 1.7110001
1.0510999 -0.10306066 1.8820001
1.0553463 -0.10218448 1.8660001
1.0597404 -0.10657864 1.8660001
1.0597404 -0.10218448 1.8660001
1.0537682 -0.10245828 1.8710001
1.061002 -0.1071498 1.876
1.0566849 -0.10806366 1.8920001
1.0555317 -0.10306066 1.8820001
1.0599636 -0.10749251 1.8820001
1.058336 -0.10777808 1.8870001
1.0672232 -0.1122217 1.8870001
1.0550102 -0.10388208 1.8970001
1.0583471 -0.10869195 1.9030001
1.0566348 -0.10448445 1.9080001
1.0684117 -0.11281642 1.8970001
1.0673097 -0.11317324 1.9030001
1.0656209 -0.1134706 1.9080001
1.0551835 -0.10114432 1.9300001
1.0627265 -0.1096058 1.9190001
1.0609647 -0.10536063 1.9240001
1.0624738 -0.10596301 1.9350001
1.0672455 -0.11412478 1.9190001
1.0745569 -0.11895288 1.9240001
1.0715871 -0.11507631 1.9350001
1.0761437 -0.11963296 1.9350001
1.0670304 -0.11051966 1.9350001
1.0852571 -0.12418961 1.9350001
1.0301387 -0.10782489 1.9690001
1.028469 -0.1025593 1.9570001
1.0394121 -0.10318817 1.9690001
1.0374031 -0.1080987 1.9740001
1.0296792 -0.11343258 1.9860001
1.0343559 -0.11343258 1.9860001
1.0467 -0.1034502 1.9740001
1.0390327 -0.11343258 1.9860001
1.0437094 -0.11343258 1.9860001
1.0483862 -0.10875583 1.9860001
1.0593486 -0.10198282 1.9460001
1.0639803 -0.10287373 1.9630001
1.0625957 -0.10318817 1.9690001
1.0672115 -0.10689395 1.9520001
1.0718082 -0.11149063 1.9520001
1.0718691 -0.10782489 1.9690001
1.0765059 -0.1124616 1.9690001
1.0606456 -0.1034502 1.9740001
1.0562444 -0.1090844 1.9920001
1.0577397 -0.10407908 1.9860001
1.0624164 -0.10407908 1.9860001
1.0750079 -0.11377528 1.9920001
1.068532 -0.10842726 1.9800001
1.0731946 -0.10842726 1.9800001
1.070317 -0.1090844 1.9920001
1.025977 -0.11406086 1.9970001
1.054193 -0.11406086 1.9970001
1.0904161 -0.14955534 1.9690001
1.0918452 -0.15039085 1.9800001
1.0931849 -0.14528662 1.9740001
1.0978335 -0.14528662 1.9740001
1.0978335 -0.14063814 1.9740001
1.0984623 -0.14661142 1.9920001
1.0998305 -0.14149308 1.9860001
1.0931849 -0.13134114 1.9740001
1.0918452 -0.12707774 1.9800001
1.0978335 -0.13598964 1.9740001
1.0937715 -0.12784791 1.9920001
1.0998305 -0.13681632 1.9860001
1.0984623 -0.13253878 1.9920001
1.0810016 -0.120684 1.9520001
1.086844 -0.1248956 1.9460001
1.0791621 -0.11638468 1.9570001
1.0811425 -0.11709832 1.9690001
1.088379 -0.12560159 1.9570001
1.0857793 -0.12173504 1.9690001
1.0904161 -0.12637176 1.9690001
1.0825199 -0.11775251 1.9800001
1.0871825 -0.12241513 1.9800001
1.0796988 -0.11377528 1.9920001
1.0890806 -0.12315703 1.9920001
1.0843897 -0.11846615 1.9920001
1.0778573 -0.11308988 1.9800001
1.0965168 -0.15168208 1.9970001
1.0965168 -0.13287146 1.9970001
1.0509521 -0.097790308 1.8660001
1.0509521 -0.093396142 1.8660001
1.0433311 -0.089478947 1.876
1.0449563 -0.098052345 1.8710001
1.0493623 -0.098052345 1.8710001
1.0449563 -0.089240462 1.8710001
1.0493623 -0.0936464 1.8710001
1.0493623 -0.089240462 1.8710001
1.0477488 -0.093896657 1.876
1.0466679 -0.098628812 1.8820001
1.0477741 -0.099152878 1.8920001
1.0450051 -0.094447225 1.8870001
1.0466679 -0.094196968 1.8820001
1.0450051 -0.09000361 1.8870001
1.0477488 -0.08506123 1.876
1.0433186 -0.0857867 1.8920001
1.0433186 -0.081331313 1.8920001
1.0466679 -0.08533328 1.8820001
1.0450051 -0.085559987 1.8870001
1.0450051 -0.081116371 1.8870001
1.0494487 -0.081116371 1.8870001
1.0525185 -0.097528279 1.8610001
1.0569009 -0.097528279 1.8610001
1.0553463 -0.093396142 1.8660001
1.0553463 -0.089001976 1.8660001
1.0597404 -0.093396142 1.8660001
1.0597404 -0.089001976 1.8660001
1.0641346 -0.089001976 1.8660001
1.0537682 -0.089240462 1.8710001
1.0537682 -0.084834516 1.8710001
1.0521666 -0.08506123 1.876
1.061002 -0.08506123 1.876
1.0555317 -0.080901437 1.8820001
1.0538924 -0.081116371 1.8870001
1.0599636 -0.080901437 1.8820001
1.0611403 -0.07687591 1.8920001
1.0654197 -0.08506123 1.876
1.0698375 -0.08506123 1.876
1.0643954 -0.080901437 1.8820001
1.0655956 -0.07687591 1.8920001
1.0493845 -0.095248051 1.9030001
1.0460758 -0.090480573 1.8970001
1.0503941 -0.095748566 1.9130001
1.0476485 -0.091005243 1.9080001
1.0449032 -0.081804164 1.9030001
1.0505431 -0.077079073 1.8970001
1.0493845 -0.07732287 1.9030001
1.0476485 -0.086512171 1.9080001
1.0458891 -0.08223404 1.9130001
1.0476485 -0.077526025 1.9080001
1.0458891 -0.077729188 1.9130001
1.029202 -0.083437674 1.9410001
1.029202 -0.078866884 1.9410001
1.0446506 -0.077972986 1.9190001
1.0473725 -0.082706891 1.9240001
1.0491695 -0.087010927 1.9190001
1.0506386 -0.087509684 1.9300001
1.0460937 -0.078419931 1.9300001
1.0429144 -0.078866884 1.9410001
1.0488038 -0.08317975 1.9350001
1.0474851 -0.083437674 1.9410001
1.0474851 -0.078866884 1.9410001
1.026978 -0.050435096 1.9030001
1.0503941 -0.073224351 1.9130001
1.0279142 -0.069330178 1.9300001
1.0383109 -0.069114648 1.9240001
1.037004 -0.069330178 1.9300001
1.037004 -0.064785302 1.9300001
1.0305772 -0.074066445 1.9350001
1.0351338 -0.074066445 1.9350001
1.0351338 -0.069509789 1.9350001
1.0351338 -0.064953141 1.9350001
1.0265746 -0.055378117 1.9190001
1.0351338 -0.060396492 1.9350001
1.0428417 -0.073645398 1.9240001
1.0428417 -0.069114648 1.9240001
1.0415488 -0.073875062 1.9300001
1.0415488 -0.064785302 1.9300001
1.0473725 -0.073645398 1.9240001
1.0473725 -0.069114648 1.9240001
1.0491695 -0.073454015 1.9190001
1.0396905 -0.074066445 1.9350001
1.0488038 -0.064953141 1.9350001
1.0396905 -0.060396492 1.9350001
1.0442472 -0.060396492 1.9350001
1.0521417 -0.099991381 1.9080001
1.0550102 -0.077079073 1.8970001
1.0594773 -0.077079073 1.8970001
1.0728788 -0.077079073 1.8970001
1.0536885 -0.10056785 1.9190001
1.0519031 -0.096299134 1.9240001
1.0519031 -0.091768391 1.9240001
1.0566267 -0.097150005 1.9410001
1.0566267 -0.092579231 1.9410001
1.0521417 -0.07303296 1.9080001
1.0566348 -0.07303296 1.9080001
1.0611278 -0.07303296 1.9080001
1.070114 -0.07303296 1.9080001
1.0684134 -0.073224351 1.9130001
1.0519031 -0.069114648 1.9240001
1.0597284 -0.069330178 1.9300001
1.0566267 -0.065154545 1.9410001
1.0654954 -0.069114648 1.9240001
1.0642732 -0.069330178 1.9300001
1.0733631 -0.069330178 1.9300001
1.0344079 -0.027866598 1.8920001
1.0289406 -0.02328747 1.8820001
1.0333724 -0.02328747 1.8820001
1.0433186 -0.023411207 1.8920001
1.0477741 -0.023411207 1.8920001
1.0326743 -0.032407407 1.8970001
1.0416087 -0.027940242 1.8970001
1.0493845 -0.028028615 1.9030001
1.0431556 -0.032595325 1.9080001
1.0476485 -0.032595325 1.9080001
1.0538658 -0.028028615 1.9030001
1.0791001 -0.07303296 1.9080001
1.0774231 -0.073224351 1.9130001
1.0835931 -0.07303296 1.9080001
1.0840515 -0.069725327 1.9410001
1.0886222 -0.069725327 1.9410001
1.0915425 -0.069330178 1.9300001
1.0960875 -0.069330178 1.9300001
1.0898137 -0.069509789 1.9350001
1.0258414 -0.097700574 1.9520001
1.0272707 -0.088235155 1.9460001
1.0362448 -0.098251142 1.9630001
1.0330775 -0.093342379 1.9570001
1.037686 -0.088733919 1.9570001
1.0364358 -0.079070047 1.9460001
1.0440488 -0.098551452 1.9690001
1.0440488 -0.09391474 1.9690001
1.0454899 -0.089005962 1.9630001
1.0501125 -0.089005962 1.9630001
1.0396314 -0.083910532 1.9520001
1.0442281 -0.083910532 1.9520001
1.0410184 -0.079070047 1.9460001
1.0456009 -0.083652608 1.9460001
1.0547661 -0.088235155 1.9460001
1.0534215 -0.088507213 1.9520001
1.0580182 -0.093103893 1.9520001
1.0561198 -0.093342379 1.9570001
1.0547351 -0.089005962 1.9630001
1.0607282 -0.097950831 1.9570001
1.0593578 -0.098251142 1.9630001
1.057959 -0.09391474 1.9690001
1.0513486 -0.09880171 1.9740001
1.055997 -0.09880171 1.9740001
1.0513486 -0.094153218 1.9740001
1.055997 -0.094153218 1.9740001
1.0606456 -0.09880171 1.9740001
1.0639311 -0.065322384 1.9460001
1.0718082 -0.065523796 1.9520001
1.0764049 -0.065523796 1.9520001
1.0765059 -0.061457723 1.9690001
1.0837705 -0.065691628 1.9570001
1.0917158 -0.065893032 1.9630001
1.0838881 -0.061613787 1.9740001
1.0918452 -0.061801061 1.9800001
1.0998305 -0.061988335 1.9860001
1.1089629 -0.066094436 1.9690001
1.1135997 -0.066094436 1.9690001
1.102482 -0.066262275 1.9740001
1.1071305 -0.066262275 1.9740001
1.1045072 -0.061988335 1.9860001
1.112535 -0.062175613 1.9920001
1.1219168 -0.062175613 1.9920001
1.1200302 -0.062331676 1.9970001
1.2070329 -0.14097242 1.8560001
1.3305966 -0.42502075 1.6370001
1.3299835 -0.42219496 1.641
1.3325841 -0.4242532 1.649
1.3305966 -0.41731095 1.6370001
1.3325841 -0.42037004 1.649
1.3448466 -0.46970898 1.6450001
1.3454407 -0.46083823 1.641
1.3519999 -0.47861746 1.649
1.349871 -0.47513449 1.6370001
1.349305 -0.47243115 1.641
1.3519999 -0.47473428 1.649
1.3525941 -0.47745648 1.6450001
1.3468531 -0.47703743 1.6570001
1.3468531 -0.47313544 1.6570001
1.3460162 -0.46742469 1.6370001
1.349871 -0.47127959 1.6370001
1.349871 -0.46742469 1.6370001
1.3487203 -0.46970898 1.6450001
1.3487203 -0.4658353 1.6450001
1.3481168 -0.466968 1.649
1.349305 -0.46470255 1.641
1.349305 -0.46083823 1.641
1.3481168 -0.46308485 1.649
1.3474944 -0.4719933 1.6530001
1.3474944 -0.46810076 1.6530001
1.3468531 -0.46923348 1.6570001
1.3474944 -0.46420819 1.6530001
1.3474944 -0.46031559 1.6530001
1.3468531 -0.46533147 1.6570001
1.3468531 -0.46142948 1.6570001
1.3494349 -0.47541973 1.6650001
1.3487464 -0.47656187 1.669
1.3487464 -0.47263166 1.669
1.3552911 -0.47235215 1.682
1.3494349 -0.47149894 1.6650001
1.3494349 -0.46757808 1.6650001
1.3494349 -0.45973641 1.6650001
1.352787 -0.47010553 1.674
1.352787 -0.46616349 1.674
1.3526767 -0.46477112 1.669
1.3560195 -0.46332595 1.6780001
1.3585142 -0.46950519 1.6860001
1.3585142 -0.4655349 1.6860001
1.3585142 -0.4615646 1.6860001
1.3577574 -0.4745988 1.6900001
1.3649882 -0.47312534 1.6990001
1.3705999 -0.47646701 1.7110001
1.3705999 -0.47243783 1.7110001
1.3649882 -0.46912444 1.6990001
1.3649882 -0.46512353 1.6990001
1.3649882 -0.4611226 1.6990001
1.3705999 -0.46840867 1.7110001
1.3673958 -0.45927414 1.7070001
1.3705999 -0.46437952 1.7110001
1.3769538 -0.47602737 1.7240001
1.3769538 -0.47196761 1.7240001
1.3769538 -0.46790782 1.7240001
1.372894 -0.45978826 1.7240001
1.3769538 -0.46384802 1.7240001
1.3768758 -0.4651933 1.7290001
1.3758572 -0.45942926 1.738
1.380061 -0.47035047 1.733
1.37995 -0.46352202 1.738
1.3454407 -0.45697388 1.641
1.3448466 -0.4580878 1.6450001
1.3448466 -0.45421407 1.6450001
1.3442336 -0.45531851 1.649
1.3421612 -0.45200512 1.6370001
1.3421612 -0.44815019 1.6370001
1.3415765 -0.44924524 1.641
1.3442336 -0.45143536 1.649
1.3442336 -0.44755217 1.649
1.3383063 -0.44044039 1.6370001
1.3377122 -0.43765226 1.641
1.3415765 -0.44538093 1.641
1.3409729 -0.44259283 1.6450001
1.3403505 -0.43590268 1.649
1.3390491 -0.43411544 1.6570001
1.3436018 -0.44474524 1.6530001
1.3436018 -0.44085267 1.6530001
1.3429511 -0.43801746 1.6570001
1.3468531 -0.45752746 1.6570001
1.3468531 -0.45362547 1.6570001
1.3468531 -0.44972345 1.6570001
1.3461931 -0.44298625 1.6610001
1.3455141 -0.4401322 1.6650001
1.3415931 -0.43621135 1.6650001
1.3441652 -0.43566576 1.6780001
1.3494349 -0.45581555 1.6650001
1.3494349 -0.45189473 1.6650001
1.3494349 -0.44797388 1.6650001
1.352787 -0.45827943 1.674
1.352787 -0.45039535 1.674
1.3560195 -0.45542303 1.6780001
1.3552911 -0.44858691 1.682
1.3487464 -0.44511983 1.669
1.3505737 -0.44171312 1.6860001
1.3481166 -0.43961722 1.6780001
1.3466033 -0.43774283 1.6860001
1.3520681 -0.44356868 1.6780001
1.3545439 -0.44568342 1.6860001
1.3344514 -0.43273059 1.6370001
1.3338479 -0.42992362 1.641
1.3364673 -0.43201953 1.649
1.3332255 -0.42709783 1.6450001
1.3358166 -0.4291749 1.6530001
1.3383702 -0.431252 1.6610001
1.335147 -0.42631143 1.6570001
1.335147 -0.42240942 1.6570001
1.3338479 -0.41446632 1.641
1.3332255 -0.41935036 1.6450001
1.3364673 -0.41648686 1.649
1.3377122 -0.41060197 1.641
1.3370992 -0.41160285 1.6450001
1.3358166 -0.41749716 1.6530001
1.3383702 -0.41951773 1.6610001
1.3422816 -0.41560629 1.6610001
1.3397093 -0.41360459 1.6530001
1.3436018 -0.40971202 1.6530001
1.3461931 -0.41169488 1.6610001
1.3376724 -0.42836967 1.6650001
1.3376724 -0.42444882 1.6650001
1.3408859 -0.43332905 1.669
1.340961 -0.43068516 1.674
1.340961 -0.42674312 1.674
1.340961 -0.42280111 1.674
1.3402138 -0.42776284 1.6780001
1.3434085 -0.4327434 1.682
1.342633 -0.42980224 1.6860001
1.3402138 -0.42381138 1.6780001
1.342633 -0.42583194 1.6860001
1.3376724 -0.42052799 1.6650001
1.3415931 -0.41660714 1.6650001
1.344903 -0.41885906 1.674
1.3455141 -0.41268632 1.6650001
1.3441652 -0.41985995 1.6780001
1.3466033 -0.42186165 1.6860001
1.348845 -0.41491705 1.674
1.3526767 -0.40974748 1.669
1.352787 -0.41097501 1.674
1.3481166 -0.41590852 1.6780001
1.3505737 -0.41789138 1.6860001
1.3552911 -0.41293904 1.682
1.3585142 -0.45362401 1.6860001
1.359971 -0.4080056 1.6780001
1.3624845 -0.40995079 1.6860001
1.3458184 -0.43480164 1.6900001
1.3489846 -0.43711716 1.6990001
1.3529855 -0.44111806 1.6990001
1.3569864 -0.44511899 1.6990001
1.3481501 -0.43413594 1.7030001
1.3513167 -0.4391754 1.7070001
1.3553364 -0.44319516 1.7070001
1.3575575 -0.44251999 1.72
1.3544004 -0.43744996 1.7160001
1.3450147 -0.43184164 1.6940001
1.3450147 -0.42785251 1.6940001
1.3458184 -0.4228625 1.6900001
1.3489846 -0.42511445 1.6990001
1.3481501 -0.43012562 1.7030001
1.3513167 -0.42711616 1.7070001
1.3521605 -0.42210498 1.7030001
1.3544832 -0.42408788 1.7110001
1.3497981 -0.41888282 1.6900001
1.3490038 -0.41987425 1.6940001
1.3577574 -0.4149031 1.6900001
1.356982 -0.41588512 1.6940001
1.3569864 -0.41711265 1.6990001
1.3561708 -0.41809466 1.7030001
1.3553364 -0.41907668 1.7070001
1.3544004 -0.43340904 1.7160001
1.3544004 -0.42936808 1.7160001
1.3575575 -0.42631859 1.72
1.3617373 -0.45867991 1.6900001
1.3609712 -0.45178732 1.6940001
1.3609873 -0.4491199 1.6990001
1.3649882 -0.4571217 1.6990001
1.3641914 -0.45418757 1.7030001
1.3593563 -0.4472149 1.7070001
1.363376 -0.45123464 1.7070001
1.3665233 -0.45361373 1.7160001
1.3705642 -0.45765465 1.7160001
1.3656583 -0.45062071 1.72
1.3646611 -0.44890708 1.7290001
1.3687326 -0.45297864 1.7290001
1.3676717 -0.44715104 1.738
1.3584414 -0.44553185 1.7160001
1.3637371 -0.44178367 1.733
1.3605895 -0.43669242 1.7290001
1.363579 -0.43487278 1.738
1.3759801 -0.45810756 1.733
1.3649603 -0.41189599 1.6940001
1.3673958 -0.41505694 1.7070001
1.3665707 -0.41602954 1.7110001
1.3682019 -0.41408435 1.7030001
1.37299 -0.40911084 1.6990001
1.3754352 -0.41103721 1.7070001
1.374629 -0.41200036 1.7110001
1.3584414 -0.42128623 1.7160001
1.3607147 -0.42325026 1.7240001
1.3605895 -0.43262088 1.7290001
1.3605895 -0.42854935 1.7290001
1.363579 -0.43078005 1.738
1.3637371 -0.4254598 1.733
1.363579 -0.42668733 1.738
1.3678181 -0.42137882 1.733
1.3676717 -0.42259458 1.738
1.3647745 -0.4191905 1.7240001
1.3665233 -0.4172453 1.7160001
1.3656583 -0.41821787 1.72
1.372894 -0.4151307 1.7240001
1.3737589 -0.41416752 1.72
1.382687 -0.40916342 1.7160001
1.3778093 -0.41416752 1.72
1.3818597 -0.41011715 1.72
1.3728042 -0.41633469 1.7290001
1.3717645 -0.41850182 1.738
1.3718991 -0.41729784 1.733
1.37995 -0.41440907 1.738
1.3809472 -0.41226313 1.7290001
1.380061 -0.41321689 1.733
1.3840427 -0.479893 1.738
1.3840427 -0.47580025 1.738
1.3850188 -0.41226313 1.7290001
1.3850188 -0.40819156 1.7290001
1.384142 -0.40913591 1.733
1.3840427 -0.41031632 1.738
1.383126 -0.46869099 1.7420001
1.3821903 -0.46565562 1.7460001
1.3810495 -0.45979035 1.7550001
1.3837349 -0.45929244 1.7690001
1.3435386 -0.41136569 1.7600001
1.3518277 -0.41551024 1.7600001
1.3476832 -0.41136569 1.7600001
1.3518277 -0.41136569 1.7600001
1.3559723 -0.41551024 1.7600001
1.3559723 -0.41136569 1.7600001
1.3390428 -0.40837801 1.7650001
1.3379117 -0.40930352 1.7690001
1.3375157 -0.41046038 1.774
1.3416932 -0.41463792 1.774
1.3420774 -0.41346925 1.7690001
1.3431991 -0.41253436 1.7650001
1.3405316 -0.41557285 1.7780001
1.3447185 -0.41975975 1.7780001
1.3438606 -0.41791016 1.7880001
1.3401027 -0.40834406 1.7830001
1.3438606 -0.41369966 1.7880001
1.3545747 -0.42180073 1.7690001
1.3542258 -0.42299291 1.774
1.3480711 -0.4221206 1.7880001
1.3526988 -0.42513889 1.7830001
1.3530924 -0.42394671 1.7780001
1.3522816 -0.4263311 1.7880001
1.3462431 -0.41763499 1.7690001
1.3473555 -0.41669065 1.7650001
1.3515118 -0.41669065 1.7650001
1.3458707 -0.4188154 1.774
1.3708196 -0.45228234 1.7420001
1.3667173 -0.444078 1.7420001
1.369655 -0.44224894 1.751
1.3667173 -0.43997583 1.7420001
1.369655 -0.43812558 1.751
1.3686512 -0.43499371 1.7550001
1.3749217 -0.45638451 1.7420001
1.3737785 -0.45049566 1.751
1.376695 -0.45281118 1.7600001
1.372784 -0.44739202 1.7550001
1.3808396 -0.45695573 1.7600001
1.3725505 -0.44037753 1.7600001
1.3795692 -0.45096093 1.7690001
1.382401 -0.44906834 1.7780001
1.3764497 -0.44578493 1.7650001
1.3754034 -0.43846372 1.7690001
1.3751134 -0.43552551 1.774
1.3792909 -0.4438805 1.774
1.3733341 -0.43475208 1.7880001
1.378214 -0.44069448 1.7780001
1.3778911 -0.43773505 1.7830001
1.365744 -0.43276295 1.7460001
1.365744 -0.42865136 1.7460001
1.3667173 -0.42356718 1.7420001
1.365744 -0.42453977 1.7460001
1.3655317 -0.42163217 1.751
1.369655 -0.42163217 1.751
1.3686512 -0.43086091 1.7550001
1.3686512 -0.42672813 1.7550001
1.3684059 -0.42379934 1.7600001
1.3698555 -0.42042819 1.7460001
1.369655 -0.41750881 1.751
1.3645184 -0.41846257 1.7550001
1.3601168 -0.41965479 1.7600001
1.3601168 -0.41551024 1.7600001
1.3642614 -0.41965479 1.7600001
1.3642614 -0.41551024 1.7600001
1.3601168 -0.41136569 1.7600001
1.3642614 -0.41136569 1.7600001
1.3686512 -0.41846257 1.7550001
1.3684059 -0.41551024 1.7600001
1.3686512 -0.4143298 1.7550001
1.3684059 -0.41136569 1.7600001
1.3739672 -0.42042819 1.7460001
1.3737785 -0.41750881 1.751
1.3790239 -0.41536286 1.7420001
1.3780787 -0.4163166 1.7460001
1.3779018 -0.41750881 1.751
1.383126 -0.41126069 1.7420001
1.3821903 -0.41220501 1.7460001
1.3820251 -0.41338545 1.751
1.3820251 -0.40926212 1.751
1.372784 -0.4143298 1.7550001
1.3769168 -0.4143298 1.7550001
1.3769168 -0.41019705 1.7550001
1.3725505 -0.41136569 1.7600001
1.376695 -0.41136569 1.7600001
1.3810495 -0.4143298 1.7550001
1.3810495 -0.41019705 1.7550001
1.3598244 -0.42084697 1.7650001
1.3587404 -0.42180073 1.7690001
1.3625808 -0.42717046 1.774
1.3670719 -0.42596647 1.7690001
1.3681371 -0.42500332 1.7650001
1.3667583 -0.42717046 1.774
1.3614663 -0.42813364 1.7780001
1.3610961 -0.42933762 1.7830001
1.3607025 -0.4305416 1.7880001
1.3639808 -0.40837801 1.7650001
1.3681371 -0.40837801 1.7650001
1.3722935 -0.43331596 1.7650001
1.3722935 -0.42915964 1.7650001
1.3712376 -0.43013221 1.7690001
1.3740271 -0.43232059 1.7780001
1.3736924 -0.43353635 1.7830001
1.3722935 -0.40837801 1.7650001
1.3764497 -0.40837801 1.7650001
1.3806061 -0.40837801 1.7650001
1.3426471 -0.41040525 1.7920001
1.3506249 -0.42424536 1.7970001
1.3501395 -0.42118236 1.802
1.3538858 -0.42660621 1.807
1.3526181 -0.42328596 1.8110001
1.3463932 -0.41578203 1.7970001
1.345896 -0.41269544 1.802
1.345896 -0.40845197 1.802
1.3496305 -0.41809577 1.807
1.3563526 -0.42873099 1.8160001
1.3557988 -0.41704684 1.8210001
1.3520762 -0.41162533 1.8160001
1.3552215 -0.409592 1.8260001
1.3628699 -0.43391272 1.802
1.3721864 -0.43572468 1.7920001
1.3756002 -0.43815616 1.802
1.3806262 -0.4399446 1.7920001
1.3751619 -0.43937191 1.807
1.3836724 -0.44362715 1.807
1.3729516 -0.43848783 1.8210001
1.3777347 -0.44156027 1.8160001
1.3810214 -0.44399178 1.8260001
1.3799374 -0.44209975 1.8360001
1.3793601 -0.43896842 1.8410001
1.3595268 -0.43150476 1.7920001
1.3586264 -0.42966926 1.802
1.3595215 -0.42249194 1.8260001
1.3649054 -0.43300742 1.8160001
1.3632442 -0.42796054 1.8310001
1.3663542 -0.41729197 1.8410001
1.4070179 -0.48527795 1.7880001
1.3902719 -0.47935918 1.751
1.3863019 -0.47387877 1.7460001
1.3893151 -0.47218868 1.7550001
1.3932732 -0.47767851 1.7600001
1.3891287 -0.46938941 1.7600001
1.3851823 -0.46392313 1.7550001
1.3849841 -0.46524486 1.7600001
1.3962321 -0.47595543 1.7690001
1.396001 -0.47312316 1.774
1.3879006 -0.46345818 1.7690001
1.387646 -0.46476811 1.774
1.3918235 -0.46894565 1.774
1.386588 -0.46162915 1.7780001
1.4003979 -0.48428693 1.7690001
1.4001786 -0.48147821 1.774
1.4028075 -0.48106745 1.7880001
1.3991487 -0.47837692 1.7780001
1.3988847 -0.47552347 1.7830001
1.398597 -0.47264647 1.7880001
1.4095479 -0.48907766 1.802
1.4092038 -0.49043468 1.807
1.4092038 -0.48617944 1.807
1.393286 -0.4610441 1.7920001
1.4017258 -0.47792375 1.7920001
1.4014052 -0.47502556 1.7970001
1.4010611 -0.4721038 1.802
1.4056369 -0.48348892 1.7970001
1.4053044 -0.48059073 1.802
1.4080585 -0.48299104 1.8110001
1.4049485 -0.47766897 1.807
1.3975059 -0.46948391 1.7920001
1.3971735 -0.46656218 1.7970001
1.3968176 -0.46361691 1.802
1.3995292 -0.46166778 1.8110001
1.4037939 -0.47019708 1.8110001
1.4076697 -0.48004809 1.8160001
1.4076697 -0.47577167 1.8160001
1.4072572 -0.4727934 1.8210001
1.4025213 -0.46119165 1.8260001
1.4033933 -0.46721882 1.8160001
1.4068213 -0.46549162 1.8260001
1.4015551 -0.45939383 1.8360001
1.4058785 -0.46371734 1.8360001
1.4098686 -0.48772061 1.7970001
1.4145256 -0.48533496 1.8360001
1.4111211 -0.48269153 1.8260001
1.4111211 -0.47839156 1.8260001
1.4145256 -0.48101145 1.8360001
1.4145256 -0.47668791 1.8360001
1.4140425 -0.47365078 1.8410001
1.4106734 -0.47107801 1.8310001
1.4097072 -0.4693155 1.8410001
1.410202 -0.46804085 1.8360001
1.386588 -0.45744222 1.7780001
1.3862885 -0.45452988 1.7830001
1.3859655 -0.44738352 1.7880001
1.3861485 -0.40926212 1.751
1.3890661 -0.45260429 1.7920001
1.3887101 -0.44963545 1.7970001
1.3883306 -0.44664308 1.802
1.3929418 -0.45809883 1.7970001
1.3925741 -0.45512998 1.802
1.3952646 -0.45313847 1.8110001
1.3909999 -0.44887385 1.8110001
1.3848462 -0.44416448 1.7920001
1.3840872 -0.44239962 1.802
1.3858162 -0.44706422 1.8210001
1.3948404 -0.45438954 1.8160001
1.390564 -0.45011315 1.8160001
1.3939213 -0.45259172 1.8260001
1.392908 -0.4507468 1.8360001
1.3862876 -0.44583672 1.8160001
1.3991169 -0.45866597 1.8160001
1.3982213 -0.45689169 1.8260001
1.3972315 -0.45507032 1.8360001
1.3393179 -0.42080754 1.876
1.3393179 -0.41638982 1.876
1.3445603 -0.4108741 1.8710001
1.3516147 -0.42327496 1.8870001
1.3560584 -0.42327496 1.8870001
1.3516147 -0.41883135 1.8870001
1.3560584 -0.41883135 1.8870001
1.3568971 -0.41328973 1.8820001
1.3744122 -0.43581355 1.8460001
1.3811978 -0.43497247 1.8610001
1.3700651 -0.42277238 1.8460001
1.365718 -0.41407824 1.8460001
1.3650583 -0.41084093 1.8510001
1.3636683 -0.40867808 1.8610001
1.3774868 -0.4294332 1.8560001
1.3761203 -0.41856444 1.8660001
1.3717263 -0.41417027 1.8660001
1.370242 -0.41197211 1.876
1.3641069 -0.41994113 1.8920001
1.361329 -0.41328973 1.8820001
1.3685623 -0.41994113 1.8920001
1.3657608 -0.41328973 1.8820001
1.3701926 -0.41328973 1.8820001
1.3834882 -0.42215341 1.8820001
1.3746598 -0.41638982 1.876
1.3730178 -0.41994113 1.8920001
1.3774731 -0.41994113 1.8920001
1.3782765 -0.41883135 1.8870001
1.3747429 -0.43361193 1.9130001
1.3790547 -0.43949091 1.9190001
1.3587775 -0.42998526 1.8970001
1.3720378 -0.42686397 1.9030001
1.3801358 -0.42798552 1.9080001
1.4091887 -0.46624303 1.8460001
1.4086467 -0.46314704 1.8510001
1.4080812 -0.46002752 1.8560001
1.4178829 -0.49232545 1.8460001
1.4178829 -0.4879784 1.8460001
1.4211931 -0.49062183 1.8560001
1.4211931 -0.48625121 1.8560001
1.4244562 -0.4888711 1.8660001
1.4278065 -0.5019266 1.8820001
1.4271562 -0.50326014 1.8870001
1.4276723 -0.49590871 1.876
1.4322383 -0.49306291 1.8820001
1.4322383 -0.48863107 1.8820001
1.4178829 -0.48363131 1.8460001
1.4178829 -0.47928426 1.8460001
1.4173645 -0.47622359 1.8510001
1.4211931 -0.48188058 1.8560001
1.4206394 -0.47879636 1.8610001
1.4168224 -0.47313935 1.8560001
1.4156679 -0.46690026 1.8660001
1.4112737 -0.46250612 1.8660001
1.4162569 -0.47003156 1.8610001
1.4244562 -0.48447692 1.8660001
1.4189428 -0.46204001 1.8820001
1.4276723 -0.48265556 1.876
1.4238671 -0.47696319 1.8710001
1.4232545 -0.47382012 1.876
1.4278065 -0.47976738 1.8820001
1.4309378 -0.47786123 1.8920001
1.4233747 -0.47090369 1.8820001
1.4257849 -0.46572259 1.8970001
1.4302522 -0.47018975 1.8970001
1.4295595 -0.46393007 1.9080001
1.3955703 -0.45007053 1.8510001
1.3943449 -0.44811961 1.8610001
1.3862281 -0.44254503 1.8560001
1.399929 -0.45442936 1.8510001
1.401166 -0.45173153 1.876
1.4062433 -0.45493352 1.8710001
1.39975 -0.43776271 1.8920001
1.3879128 -0.42964298 1.876
1.3842137 -0.42409194 1.8710001
1.3863839 -0.42439654 1.8920001
1.3952945 -0.42885193 1.8920001
1.4034069 -0.43582657 1.9030001
1.4062768 -0.43361193 1.9130001
1.3915044 -0.43746522 1.9300001
1.3994353 -0.44452935 1.9410001
1.389963 -0.42686397 1.9030001
1.3846289 -0.42798552 1.9080001
1.389122 -0.42798552 1.9080001
1.4197912 -0.45163128 1.9130001
1.4152063 -0.44400987 1.9190001
1.414363 -0.44063601 1.9240001
1.4098324 -0.43610525 1.9240001
1.4133359 -0.43859854 1.9350001
1.4131477 -0.43995857 1.9410001
1.4178926 -0.4431552 1.9350001
1.4076228 -0.4410919 1.9460001
1.4119629 -0.44704857 1.9520001
1.4211563 -0.44704857 1.9520001
1.4201881 -0.4481937 1.9570001
1.4122053 -0.4410919 1.9460001
1.4257529 -0.44704857 1.9520001
1.4349463 -0.45164528 1.9520001
1.4799001 -0.52049267 1.9690001
1.500945 -0.51378632 1.9970001
1.4353932 -0.50013822 1.8920001
1.4430387 -0.50436771 1.9080001
1.4391865 -0.49699274 1.8970001
1.4391865 -0.48805842 1.8970001
1.4392571 -0.4851208 1.9030001
1.4437385 -0.4940834 1.9030001
1.4468203 -0.49217489 1.9130001
1.4513582 -0.50275654 1.9190001
1.4513582 -0.49823755 1.9190001
1.4551326 -0.49200374 1.9300001
1.4385457 -0.47740927 1.9080001
1.4468392 -0.48468062 1.9190001
1.4634261 -0.50852025 1.9410001
1.4505867 -0.45951203 1.9860001
1.467196 -0.50066507 1.9460001
1.4799001 -0.49730906 1.9690001
1.4492159 -0.46205717 1.9970001
1.4539186 -0.46205717 1.9970001
1.4464704 -0.45673552 1.9740001
1.4926773 -0.50627947 1.9860001
1.2465861 -0.36340454 1.7290001
1.2571677 -0.35711068 1.738
1.2400972 -0.31695896 1.72
1.247041 -0.32987541 1.7240001
1.253551 -0.32751653 1.733
1.24947 -0.31527361 1.733
1.3261192 -0.36036581 1.641
1.3299835 -0.36423013 1.641
1.328701 -0.35823944 1.649
1.3319241 -0.36300102 1.6530001
1.3228868 -0.35563248 1.6370001
1.325478 -0.35349673 1.6450001
1.325478 -0.34962299 1.6450001
1.325478 -0.34574926 1.6450001
1.3312451 -0.34827143 1.6570001
1.3312451 -0.34436944 1.6570001
1.3222549 -0.34104419 1.641
1.3222549 -0.33717987 1.641
1.3222549 -0.33331555 1.641
1.3312451 -0.34046742 1.6570001
1.3280315 -0.33186039 1.6530001
1.3312451 -0.33656543 1.6570001
1.3190318 -0.32479328 1.6370001
1.315177 -0.31322858 1.6370001
1.3183905 -0.31785825 1.641
1.3177304 -0.30701184 1.6450001
1.3222549 -0.3294512 1.641
1.3248178 -0.32717416 1.649
1.3216043 -0.32250679 1.6450001
1.3273431 -0.32485941 1.6570001
1.3273431 -0.32095742 1.6570001
1.3209347 -0.31164151 1.649
1.3241389 -0.31629008 1.6530001
1.326636 -0.30999798 1.6610001
1.3298306 -0.31858617 1.6650001
1.3298306 -0.31466535 1.6650001
1.2529335 -0.38126758 1.7550001
1.2623204 -0.38957277 1.774
1.2694646 -0.3647365 1.7550001
1.2559589 -0.31280875 1.7420001
1.267066 -0.33819655 1.7460001
1.2706945 -0.34741172 1.751
1.2706945 -0.34328836 1.751
1.2772259 -0.33676377 1.7600001
1.2808543 -0.33356416 1.7650001
1.2600611 -0.32511526 1.7420001
1.2653317 -0.31101036 1.7550001
1.2730813 -0.32433012 1.7600001
1.2795913 -0.32182285 1.7690001
1.2754256 -0.30932564 1.7690001
1.2897182 -0.37475437 1.7830001
1.2902883 -0.36532956 1.7780001
1.2975453 -0.37159479 1.7880001
1.3017558 -0.35896331 1.7880001
1.3295802 -0.38430902 1.7690001
1.3321577 -0.39045119 1.7780001
1.3321577 -0.38626426 1.7780001
1.3317052 -0.38315177 1.7830001
1.3185977 -0.35896331 1.7880001
1.3321577 -0.38207731 1.7780001
1.3321577 -0.37789041 1.7780001
1.3317052 -0.37895307 1.7830001
1.3312291 -0.38001576 1.7880001
1.3275064 -0.37475437 1.7830001
1.3275064 -0.37055564 1.7830001
1.3321577 -0.37370345 1.7780001
1.3317052 -0.37475437 1.7830001
1.3317052 -0.37055564 1.7830001
1.3270186 -0.37580526 1.7880001
1.3270186 -0.37159479 1.7880001
1.3233078 -0.36215821 1.7830001
1.3233078 -0.35795951 1.7830001
1.3228081 -0.36317381 1.7880001
1.3228081 -0.35896331 1.7880001
1.3270186 -0.36738428 1.7880001
1.3312291 -0.36738428 1.7880001
1.3312291 -0.36317381 1.7880001
1.3312291 -0.35896331 1.7880001
1.3000523 -0.39989406 1.8210001
1.3046679 -0.36398625 1.7920001
1.3135884 -0.38596678 1.8160001
1.3323787 -0.39021751 1.8360001
1.3142363 -0.38063946 1.8110001
1.318501 -0.37637481 1.8110001
1.3131078 -0.35976636 1.7920001
1.3125399 -0.36077017 1.7970001
1.3167716 -0.36500186 1.7970001
1.3161919 -0.36601743 1.802
1.3173277 -0.35976636 1.7920001
1.3257674 -0.37242609 1.7920001
1.3252349 -0.37346521 1.7970001
1.3299873 -0.3808659 1.7920001
1.3294666 -0.3776969 1.7970001
1.3240992 -0.37128824 1.807
1.3227656 -0.37211016 1.8110001
1.3326095 -0.37979871 1.807
1.3270303 -0.37637481 1.8110001
1.3312949 -0.37637481 1.8110001
1.3283545 -0.37128824 1.807
1.3215475 -0.36398625 1.7920001
1.3257674 -0.36820617 1.7920001
1.3210033 -0.36500186 1.7970001
1.3252349 -0.36923352 1.7970001
1.3264177 -0.37741393 1.8160001
1.2902883 -0.33183405 1.7780001
1.2981156 -0.35376078 1.7830001
1.2944753 -0.34858179 1.7780001
1.2944753 -0.34439489 1.7780001
1.3059663 -0.35475281 1.7880001
1.3059663 -0.35054234 1.7880001
1.3059663 -0.34633186 1.7880001
1.3017558 -0.34212136 1.7880001
1.3017558 -0.33791089 1.7880001
1.283208 -0.31855494 1.774
1.2861015 -0.31508631 1.7780001
1.2855194 -0.30757496 1.7830001
1.2933348 -0.31264797 1.7880001
1.2975453 -0.32948992 1.7880001
1.3101768 -0.35475281 1.7880001
1.3101768 -0.35054234 1.7880001
1.3101768 -0.34633186 1.7880001
1.3143873 -0.35475281 1.7880001
1.3143873 -0.35054234 1.7880001
1.3185977 -0.35475281 1.7880001
1.3185977 -0.35054234 1.7880001
1.3228081 -0.35475281 1.7880001
1.3228081 -0.35054234 1.7880001
1.3270186 -0.35475281 1.7880001
1.3312291 -0.35475281 1.7880001
1.3004481 -0.3260071 1.7920001
1.3040766 -0.32268503 1.7970001
1.3034616 -0.31085253 1.802
1.3034616 -0.30660906 1.802
1.3173277 -0.34710664 1.7920001
1.3088878 -0.34288675 1.7920001
1.3088878 -0.33866683 1.7920001
1.3131078 -0.34288675 1.7920001
1.3131078 -0.33866683 1.7920001
1.3083082 -0.33538008 1.7970001
1.3125399 -0.33538008 1.7970001
1.3173277 -0.34288675 1.7920001
1.3173277 -0.33866683 1.7920001
1.3173277 -0.33444691 1.7920001
1.3167716 -0.33538008 1.7970001
1.3161919 -0.33206978 1.802
1.3215475 -0.34710664 1.7920001
1.3257674 -0.34710664 1.7920001
1.3299873 -0.35132653 1.7920001
1.3299873 -0.34710664 1.7920001
1.3215475 -0.34288675 1.7920001
1.3257674 -0.34288675 1.7920001
1.3252349 -0.33961177 1.7970001
1.3252349 -0.33538008 1.7970001
